ply
format ascii 1.0
element vertex 250
property float x
property float y
property float z
end_header
4.109048843383789 -4.104039192199707 7.450580596923828e-08
4.10970401763916 -4.078981399536133 2.905726432800293e-07
4.110357284545898 -4.054074287414551 2.2351741790771484e-08
4.111004829406738 -4.0293169021606445 2.0116567611694336e-07
4.111649513244629 -4.004701614379883 -2.4586915969848633e-07
4.112289905548096 -3.980224847793579 5.21540641784668e-08
4.1129279136657715 -3.9558889865875244 1.4901161193847656e-07
4.113560676574707 -3.9316935539245605 5.960464477539063e-08
4.114191055297852 -3.907637119293213 -2.2351741790771484e-07
4.114816665649414 -3.8837180137634277 1.564621925354004e-07
4.115439414978027 -3.859929084777832 1.7881393432617188e-07
4.11605978012085 -3.8362746238708496 -1.043081283569336e-07
4.116674900054932 -3.812753200531006 -2.4586915969848633e-07
4.117287635803223 -3.7893552780151367 5.960464477539063e-08
4.117897033691406 -3.7660913467407227 3.725290298461914e-08
4.118502140045166 -3.7429521083831787 2.2351741790771484e-08
4.119105815887451 -3.7199385166168213 2.2351741790771484e-08
4.119704246520996 -3.697045087814331 -1.1175870895385742e-07
4.120300769805908 -3.674278974533081 2.905726432800293e-07
4.120893478393555 -3.6516306400299072 5.513429641723633e-07
4.12148380279541 -3.629103422164917 2.384185791015625e-07
4.122069835662842 -3.606689214706421 1.9371509552001953e-07
4.122654438018799 -3.5843937397003174 -7.450580596923828e-09
4.12323522567749 -3.562218189239502 1.862645149230957e-07
4.123813152313232 -3.5401525497436523 8.940696716308594e-08
4.124386787414551 -3.5181989669799805 2.0116567611694336e-07
4.1249589920043945 -3.4963579177856445 5.438923835754395e-07
4.125527858734131 -3.4746274948120117 1.4156103134155273e-07
4.126094341278076 -3.4530019760131836 3.0547380447387695e-07
4.126656532287598 -3.431488513946533 -2.5331974029541016e-07
4.1272172927856445 -3.4100823402404785 2.5331974029541016e-07
4.127776145935059 -3.388777732849121 3.2782554626464844e-07
4.128331184387207 -3.3675754070281982 -5.960464477539063e-08
4.1288838386535645 -3.346477746963501 1.4156103134155273e-07
4.129433631896973 -3.3254826068878174 3.725290298461914e-07
4.129980564117432 -3.3045904636383057 1.7136335372924805e-07
4.130524158477783 -3.2837960720062256 -6.705522537231445e-08
4.13106632232666 -3.2630937099456787 0.0
4.131605625152588 -3.2424943447113037 1.341104507446289e-07
4.132142543792725 -3.2219884395599365 1.1920928955078125e-07
4.132676601409912 -3.2015798091888428 8.195638656616211e-08
4.133208751678467 -3.1812663078308105 -8.940696716308594e-08
4.133738040924072 -3.1610445976257324 5.587935447692871e-07
4.134265422821045 -3.1409101486206055 -7.450580596923828e-09
4.13599157333374 -3.1217758655548096 7.450580596923828e-08
4.147937297821045 -3.1103856563568115 1.1920928955078125e-07
4.159892559051514 -3.0989840030670166 -2.2351741790771484e-08
4.171864986419678 -3.087569236755371 1.7881393432617188e-07
4.1838507652282715 -3.076141119003296 1.4901161193847656e-07
4.195849895477295 -3.0647003650665283 4.470348358154297e-07
4.207859992980957 -3.053245782852173 5.289912223815918e-07
4.219883918762207 -3.0417802333831787 -1.4901161193847656e-08
4.2319231033325195 -3.0303025245666504 -2.4586915969848633e-07
4.24397611618042 -3.0188097953796387 2.7567148208618164e-07
4.256042957305908 -3.0072996616363525 2.9802322387695312e-08
4.268130302429199 -2.995776414871216 1.2665987014770508e-07
4.28022575378418 -2.9842419624328613 4.470348358154297e-08
4.292339324951172 -2.9726920127868652 2.2351741790771484e-07
4.304468631744385 -2.961127281188965 1.9371509552001953e-07
4.316608428955078 -2.949544906616211 -1.043081283569336e-07
4.328773021697998 -2.937948226928711 -8.940696716308594e-08
4.340952396392822 -2.9263346195220947 1.4156103134155273e-07
4.353143215179443 -2.9147067070007324 1.6391277313232422e-07
4.365359783172607 -2.9030630588531494 1.4901161193847656e-08
4.377589225769043 -2.891402244567871 7.450580596923828e-08
4.389831066131592 -2.8797237873077393 3.129243850708008e-07
4.362359046936035 -2.842134475708008 -1.1920928955078125e-07
4.315643787384033 -2.7924270629882812 2.60770320892334e-07
4.270108699798584 -2.7439703941345215 2.4586915969848633e-07
4.225694179534912 -2.6967132091522217 4.470348358154297e-08
4.182370662689209 -2.650606393814087 -1.4901161193847656e-08
4.1481475830078125 -2.610691785812378 2.2351741790771484e-08
4.14861536026001 -2.5928218364715576 8.940696716308594e-08
4.149081230163574 -2.5750224590301514 7.450580596923828e-08
4.149546146392822 -2.5572898387908936 -1.043081283569336e-07
4.150008678436279 -2.539621114730835 -1.4901161193847656e-08
4.150469779968262 -2.5220134258270264 2.682209014892578e-07
4.150928974151611 -2.504467725753784 3.129243850708008e-07
4.151386737823486 -2.4869892597198486 1.862645149230957e-07
4.1518425941467285 -2.469571828842163 -1.7881393432617188e-07
4.152297019958496 -2.452216386795044 1.2665987014770508e-07
4.152749538421631 -2.4349169731140137 1.043081283569336e-07
4.153200626373291 -2.417677402496338 2.384185791015625e-07
4.153651237487793 -2.400500774383545 1.4156103134155273e-07
4.154099464416504 -2.3833837509155273 -2.5331974029541016e-07
4.154545783996582 -2.3663225173950195 -4.470348358154297e-08
4.154991149902344 -2.349320888519287 3.129243850708008e-07
4.155434608459473 -2.332371711730957 2.7567148208618164e-07
4.155876636505127 -2.3154783248901367 -1.6391277313232422e-07
4.156317710876465 -2.298642635345459 3.725290298461914e-08
4.156757831573486 -2.2818641662597656 -1.1920928955078125e-07
4.157195568084717 -2.265138626098633 2.682209014892578e-07
4.157631874084473 -2.2484638690948486 1.862645149230957e-07
4.158066749572754 -2.2318427562713623 1.7136335372924805e-07
4.158500671386719 -2.215275287628174 2.1606683731079102e-07
4.158932685852051 -2.1987597942352295 -1.7136335372924805e-07
4.159363746643066 -2.1822969913482666 -2.9802322387695312e-08
4.159794330596924 -2.1658823490142822 6.705522537231445e-08
4.16022253036499 -2.1495211124420166 2.2351741790771484e-07
4.160649299621582 -2.1332061290740967 -1.7136335372924805e-07
4.161075115203857 -2.1169421672821045 -7.078051567077637e-08
4.161499500274658 -2.1007275581359863 1.862645149230957e-08
4.161922454833984 -2.0845603942871094 5.587935447692871e-08
4.1623454093933105 -2.0684380531311035 -3.725290298461914e-09
4.162765979766846 -2.052365303039551 -9.313225746154785e-08
4.163186550140381 -2.0363402366638184 2.682209014892578e-07
4.163603782653809 -2.020358085632324 1.4901161193847656e-08
4.164020538330078 -2.0044238567352295 1.825392246246338e-07
4.164437294006348 -1.988532304763794 2.1979212760925293e-07
4.164852142333984 -1.9726877212524414 1.9371509552001953e-07
4.1652655601501465 -1.9568850994110107 1.1175870895385742e-08
4.165678024291992 -1.9411280155181885 2.1979212760925293e-07
4.1660895347595215 -1.9254114627838135 2.3469328880310059e-07
4.166500568389893 -1.909739375114441 -3.203749656677246e-07
4.166909694671631 -1.8941072225570679 -1.2293457984924316e-07
4.1673173904418945 -1.8785163164138794 -9.313225746154785e-08
4.167724609375 -1.862969994544983 3.0919909477233887e-07
4.168130397796631 -1.8474630117416382 2.2351741790771484e-08
4.168536186218262 -1.8319939374923706 -7.450580596923828e-09
4.168939590454102 -1.8165652751922607 2.421438694000244e-07
4.1693434715271 -1.8011772632598877 3.241002559661865e-07
4.16974401473999 -1.7858266830444336 1.4901161193847656e-07
4.170144557952881 -1.7705159187316895 -2.1606683731079102e-07
4.17054557800293 -1.7552430629730225 1.4901161193847656e-07
4.1709442138671875 -1.7400050163269043 2.1606683731079102e-07
4.171341896057129 -1.7248040437698364 3.3527612686157227e-08
4.171738624572754 -1.7096413373947144 9.685754776000977e-08
4.172135353088379 -1.694515585899353 3.948807716369629e-07
4.172530174255371 -1.6794251203536987 -6.705522537231445e-08
4.172924995422363 -1.6643708944320679 1.564621925354004e-07
4.1733174324035645 -1.6493464708328247 -7.450580596923828e-09
4.173710346221924 -1.6343607902526855 9.313225746154785e-08
4.174101829528809 -1.6194076538085938 -1.4528632164001465e-07
4.174492835998535 -1.6044888496398926 2.7194619178771973e-07
4.174881458282471 -1.5896053314208984 -7.078051567077637e-08
4.175271034240723 -1.5747520923614502 1.6763806343078613e-07
4.1756591796875 -1.5599300861358643 3.3527612686157227e-08
4.176046848297119 -1.545140027999878 4.0978193283081055e-08
4.176432132720947 -1.5303832292556763 2.0116567611694336e-07
4.176818370819092 -1.5156599283218384 4.470348358154297e-08
4.1772027015686035 -1.50096595287323 4.507601261138916e-07
4.177587509155273 -1.4862982034683228 3.948807716369629e-07
4.177969455718994 -1.4716647863388062 3.3527612686157227e-08
4.1783528327941895 -1.4570592641830444 2.1979212760925293e-07
4.178733825683594 -1.4424848556518555 2.9802322387695312e-08
4.179115295410156 -1.42793869972229 -8.568167686462402e-08
4.179494380950928 -1.4134225845336914 -1.2293457984924316e-07
4.179874420166016 -1.3989300727844238 2.942979335784912e-07
4.180253028869629 -1.3844668865203857 3.203749656677246e-07
4.180631637573242 -1.3700335025787354 -4.0978193283081055e-08
4.181007385253906 -1.355627179145813 1.0803341865539551e-07
4.181384563446045 -1.3412481546401978 -1.7508864402770996e-07
4.181760311126709 -1.3268924951553345 4.6193599700927734e-07
4.182136058807373 -1.3125628232955933 -3.0919909477233887e-07
4.182509422302246 -1.2982593774795532 -1.1548399925231934e-07
4.1828837394714355 -1.2839833498001099 1.2665987014770508e-07
4.183257579803467 -1.269731879234314 -1.1175870895385742e-07
4.183629035949707 -1.2555055618286133 1.341104507446289e-07
4.184001445770264 -1.2413005828857422 -1.7508864402770996e-07
4.184372425079346 -1.2271182537078857 -5.587935447692871e-08
4.184743881225586 -1.212963581085205 1.1175870895385742e-07
4.185112476348877 -1.1988317966461182 2.3469328880310059e-07
4.185482978820801 -1.184723138809204 3.3155083656311035e-07
4.185851573944092 -1.1706352233886719 3.3527612686157227e-07
4.186219215393066 -1.1565673351287842 2.4586915969848633e-07
4.186587810516357 -1.14252507686615 1.7508864402770996e-07
4.186954498291016 -1.1285053491592407 5.21540641784668e-08
4.187321662902832 -1.1145058870315552 3.129243850708008e-07
4.187686443328857 -1.1005282402038574 3.3527612686157227e-08
4.188052654266357 -1.0865685939788818 1.0058283805847168e-07
4.188417434692383 -1.072627305984497 3.3527612686157227e-08
4.188781261444092 -1.0587106943130493 -3.725290298461914e-08
4.189146041870117 -1.044812560081482 -2.2724270820617676e-07
4.18950891494751 -1.0309345722198486 -4.470348358154297e-08
4.189872741699219 -1.0170737504959106 -7.450580596923828e-09
4.1902337074279785 -1.0032291412353516 3.3527612686157227e-07
4.190596580505371 -0.9894073605537415 -3.129243850708008e-07
4.190958499908447 -0.9756032824516296 -1.4901161193847656e-07
4.191318035125732 -0.9618172645568848 -1.2293457984924316e-07
4.19167947769165 -0.9480483531951904 -2.384185791015625e-07
4.1920390129089355 -0.9342952966690063 -5.960464477539063e-08
4.192399501800537 -0.9205565452575684 -8.940696716308594e-08
4.192758560180664 -0.9068387150764465 -1.8998980522155762e-07
4.193117141723633 -0.8931376338005066 2.2351741790771484e-08
4.193475723266602 -0.8794516921043396 4.470348358154297e-08
4.1938323974609375 -0.8657796382904053 -1.4156103134155273e-07
4.194190979003906 -0.8521227836608887 -3.3527612686157227e-08
4.194548606872559 -0.8384813070297241 -1.1920928955078125e-07
4.194904327392578 -0.8248568773269653 1.2293457984924316e-07
4.195261001586914 -0.811246931552887 1.6391277313232422e-07
4.19561767578125 -0.7976492047309875 -4.0978193283081055e-08
4.195971965789795 -0.7840668559074402 4.470348358154297e-08
4.196328163146973 -0.7704967260360718 3.725290298461914e-07
4.196682929992676 -0.7569401264190674 -7.450580596923828e-09
4.197038173675537 -0.74339759349823 -1.1175870895385742e-07
4.197391986846924 -0.7298687696456909 4.0978193283081055e-08
4.197745323181152 -0.7163501381874084 -8.940696716308594e-08
4.198099613189697 -0.7028436064720154 1.4901161193847656e-08
4.198451995849609 -0.6893512010574341 -9.685754776000977e-08
4.198805332183838 -0.6758685111999512 4.5821070671081543e-07
4.199158668518066 -0.6623990535736084 -1.6391277313232422e-07
4.199510097503662 -0.6489381790161133 -1.4901161193847656e-07
4.199862957000732 -0.6354906558990479 1.1920928955078125e-07
4.2002153396606445 -0.6220512986183167 6.332993507385254e-08
4.200565338134766 -0.6086247563362122 -2.1979212760925293e-07
4.200917720794678 -0.5952063798904419 1.2852251529693604e-07
4.201269149780273 -0.5817970037460327 1.6763806343078613e-07
4.201618671417236 -0.5683990716934204 -5.029141902923584e-08
4.201970100402832 -0.5550102591514587 -9.499490261077881e-08
4.202320098876953 -0.5416284799575806 -5.587935447692871e-09
4.202670574188232 -0.528258204460144 3.03611159324646e-07
4.2030205726623535 -0.5148927569389343 2.2724270820617676e-07
4.203369617462158 -0.5015363693237305 3.2223761081695557e-07
4.203719615936279 -0.4881890118122101 1.1175870895385742e-07
4.204068660736084 -0.47484731674194336 1.1175870895385742e-08
4.204417705535889 -0.4615161418914795 1.0803341865539551e-07
4.204767227172852 -0.44819024205207825 -1.7136335372924805e-07
4.205115795135498 -0.4348681569099426 1.0244548320770264e-07
4.205463886260986 -0.4215560555458069 8.381903171539307e-08
4.205812931060791 -0.4082501232624054 1.8812716007232666e-07
4.206161022186279 -0.3949485123157501 -1.0803341865539551e-07
4.206508636474609 -0.3816545009613037 2.2351741790771484e-07
4.206857204437256 -0.3683652877807617 1.6577541828155518e-07
4.2072038650512695 -0.3550775349140167 1.341104507446289e-07
4.207551956176758 -0.341798335313797 2.682209014892578e-07
4.207900524139404 -0.3285225033760071 4.6566128730773926e-07
4.20824670791626 -0.315251886844635 -1.9185245037078857e-07
4.20859432220459 -0.30198603868484497 1.9371509552001953e-07
4.208942413330078 -0.28871968388557434 9.499490261077881e-08
4.209288597106934 -0.27546101808547974 1.4156103134155273e-07
4.209636211395264 -0.26220613718032837 2.60770320892334e-07
4.209983825683594 -0.24895121157169342 -9.499490261077881e-08
4.210329532623291 -0.23570159077644348 1.210719347000122e-07
4.210676670074463 -0.22245430946350098 -9.12696123123169e-08
4.211024284362793 -0.20920565724372864 1.471489667892456e-07
4.21136999130249 -0.19596266746520996 1.30385160446167e-08
4.211717128753662 -0.18271878361701965 3.4086406230926514e-07
4.212064743041992 -0.1694796085357666 -1.9371509552001953e-07
4.212410926818848 -0.15624046325683594 2.2351741790771484e-07
4.212757110595703 -0.14300036430358887 1.4901161193847656e-07
4.213104248046875 -0.1297616809606552 9.872019290924072e-08
4.213450908660889 -0.11652490496635437 8.381903171539307e-08
4.213797092437744 -0.1032857596874237 2.421438694000244e-08
4.214144229888916 -0.09004899859428406 1.30385160446167e-08
4.2144904136657715 -0.0768098384141922 -4.842877388000488e-08
4.214836597442627 -0.06357259303331375 -6.891787052154541e-08
4.215183258056641 -0.05033106356859207 -1.7508864402770996e-07
4.2155303955078125 -0.037089526653289795 -2.7939677238464355e-07
4.215877056121826 -0.023847997188568115 9.685754776000977e-08
4.216223239898682 -0.010605007410049438 -3.91155481338501e-08
